ply
format ascii 1.0
comment Point Cloud Data Format in OpenHolo Library v1.0
element color 1
property int channel
element vertex 1027
property float x
property float y
property float z
property uchar red
property uchar green
property uchar blue
property double phase
end_header
3
-0.150000 0.144444 0.315700 208 25 32 5.059415
-0.135937 0.144444 0.302277 208 25 32 5.059415
-0.121875 0.144444 0.288854 208 25 32 5.059415
-0.107813 0.144444 0.275431 208 25 32 5.059415
-0.093750 0.144444 0.261857 203 24 31 5.059415
-0.079687 0.144444 0.235615 182 21 28 5.059415
-0.065625 0.144444 0.165558 113 13 17 5.059415
-0.364062 0.147222 -0.355810 24 3 4 5.059415
-0.350000 0.147222 -0.076741 24 3 4 5.059415
-0.335938 0.147222 0.118127 24 3 4 5.059415
-0.321875 0.147222 0.316810 55 6 8 5.059415
-0.307813 0.147222 0.390242 135 16 20 5.059415
-0.293750 0.147222 0.423152 181 21 28 5.059415
-0.279687 0.147222 0.434152 203 24 31 5.059415
-0.265625 0.147222 0.428149 209 25 32 5.059415
-0.251563 0.147222 0.414725 209 25 32 5.059415
-0.237500 0.147222 0.326475 16 16 16 5.059415
-0.223438 0.147222 0.322140 14 14 14 5.059415
-0.209375 0.147222 0.374456 209 25 32 5.059415
-0.195313 0.147222 0.354160 161 19 24 5.059415
-0.181250 0.147222 0.293703 21 21 21 5.059415
-0.167187 0.147222 0.298930 17 17 17 5.059415
-0.153125 0.147222 0.320759 208 25 32 5.059415
-0.139062 0.147222 0.307335 208 25 32 5.059415
-0.125000 0.147222 0.293912 208 25 32 5.059415
-0.110937 0.147222 0.280491 208 25 32 5.059415
-0.096875 0.147222 0.267064 207 24 32 5.059415
-0.082813 0.147222 0.245952 191 23 29 5.059415
-0.068750 0.147222 0.194192 140 16 21 5.059415
-0.367188 0.150000 -0.433299 24 3 4 5.059415
-0.353125 0.150000 -0.130543 24 3 4 5.059415
-0.339063 0.150000 0.075943 34 4 5 5.059415
-0.325000 0.150000 0.276834 24 3 4 5.059415
-0.310937 0.150000 0.378022 116 14 18 5.059415
-0.296875 0.150000 0.418501 171 20 26 5.059415
-0.282813 0.150000 0.434747 199 23 30 5.059415
-0.268750 0.150000 0.432689 208 25 32 5.059415
-0.254687 0.150000 0.419783 209 25 32 5.059415
-0.240625 0.150000 0.367808 13 13 13 5.059415
-0.226563 0.150000 0.323323 14 14 14 5.059415
-0.212500 0.150000 0.379515 209 25 32 5.059415
-0.198437 0.150000 0.365904 205 24 31 5.059415
-0.184375 0.150000 0.290892 21 21 21 5.059415
-0.170312 0.150000 0.286752 19 19 19 5.059415
-0.156250 0.150000 0.325397 196 23 30 5.059415
-0.142188 0.150000 0.312394 208 25 32 5.059415
-0.128125 0.150000 0.298971 208 25 32 5.059415
-0.114063 0.150000 0.285546 208 25 32 5.059415
-0.100000 0.150000 0.272123 208 24 32 5.059415
-0.085938 0.150000 0.255641 198 23 30 5.059415
-0.071875 0.150000 0.214395 161 19 24 5.059415
-0.356250 0.152778 -0.184341 24 3 4 5.059415
-0.342187 0.152778 0.025411 24 3 4 5.059415
-0.328125 0.152778 0.226120 24 3 4 5.059415
-0.314063 0.152778 0.362622 99 12 15 5.059415
-0.300000 0.152778 0.412217 160 19 24 5.059415
-0.285937 0.152778 0.433696 193 23 29 5.059415
-0.271875 0.152778 0.436211 207 24 32 5.059415
-0.257813 0.152778 0.424844 209 25 32 5.059415
-0.243750 0.152778 0.411421 209 25 32 5.059415
-0.229687 0.152778 0.342619 13 13 13 5.059415
-0.215625 0.152778 0.383160 150 18 23 5.059415
-0.201562 0.152778 0.371149 209 25 32 5.059415
-0.187500 0.152778 0.294293 21 21 21 5.059415
-0.173438 0.152778 0.281160 21 21 21 5.059415
-0.159375 0.152778 0.318353 129 15 20 5.059415
-0.145313 0.152778 0.317452 208 25 32 5.059415
-0.131250 0.152778 0.304029 208 25 32 5.059415
-0.117188 0.152778 0.290606 208 25 32 5.059415
-0.103125 0.152778 0.277183 208 25 32 5.059415
-0.089062 0.152778 0.262282 201 24 31 5.059415
-0.075000 0.152778 0.229739 174 20 26 5.059415
-0.060938 0.152778 0.126260 68 8 10 5.059415
-0.359375 0.155556 -0.241022 24 3 4 5.059415
-0.345313 0.155556 -0.025263 24 3 4 5.059415
-0.331250 0.155556 0.069645 13 13 13 5.059415
-0.317187 0.155556 0.343182 77 9 12 5.059415
-0.303125 0.155556 0.403814 147 17 22 5.059415
-0.289063 0.155556 0.431207 187 22 28 5.059415
-0.275000 0.155556 0.439639 206 24 31 5.059415
-0.260938 0.155556 0.429902 209 25 32 5.059415
-0.246875 0.155556 0.416478 209 25 32 5.059415
-0.232812 0.155556 0.389613 122 14 18 5.059415
-0.218750 0.155556 0.388963 174 20 26 5.059415
-0.204688 0.155556 0.376207 209 25 32 5.059415
-0.190625 0.155556 0.307072 19 19 19 5.059415
-0.176563 0.155556 0.279058 23 23 23 5.059415
-0.162500 0.155556 0.300302 16 16 16 5.059415
-0.148438 0.155556 0.322509 209 25 32 5.059415
-0.134375 0.155556 0.309087 208 25 32 5.059415
-0.120312 0.155556 0.295665 208 25 32 5.059415
-0.106250 0.155556 0.282242 208 25 32 5.059415
-0.092188 0.155556 0.268815 207 24 32 5.059415
-0.078125 0.155556 0.243271 184 22 28 5.059415
-0.064062 0.155556 0.176843 118 14 18 5.059415
-0.362500 0.158333 -0.303297 24 3 4 5.059415
-0.348437 0.158333 -0.075978 24 3 4 5.059415
-0.334375 0.158333 0.061830 15 15 15 5.059415
-0.320313 0.158333 0.316750 51 6 8 5.059415
-0.306250 0.158333 0.394453 132 16 20 5.059415
-0.292188 0.158333 0.428687 180 21 27 5.059415
-0.278125 0.158333 0.440262 203 24 31 5.059415
-0.264062 0.158333 0.434960 209 25 32 5.059415
-0.250000 0.158333 0.421535 209 25 32 5.059415
-0.235938 0.158333 0.408118 209 25 32 5.059415
-0.221875 0.158333 0.394348 203 24 31 5.059415
-0.207813 0.158333 0.381267 209 25 32 5.059415
-0.193750 0.158333 0.319850 17 17 17 5.059415
-0.179688 0.158333 0.278068 24 24 24 5.059415
-0.165625 0.158333 0.288224 19 19 19 5.059415
-0.151562 0.158333 0.327568 209 25 32 5.059415
-0.137500 0.158333 0.314145 208 25 32 5.059415
-0.123438 0.158333 0.300723 208 25 32 5.059415
-0.109375 0.158333 0.287301 208 25 32 5.059415
-0.095312 0.158333 0.273875 208 25 32 5.059415
-0.081250 0.158333 0.253608 193 23 29 5.059415
-0.067188 0.158333 0.203841 144 17 22 5.059415
-0.365625 0.161111 -0.365596 24 3 4 5.059415
-0.351563 0.161111 -0.126693 24 3 4 5.059415
-0.337500 0.161111 0.051760 115 14 17 5.059415
-0.323438 0.161111 0.274732 24 3 4 5.059415
-0.309375 0.161111 0.381602 113 13 17 5.059415
-0.295312 0.161111 0.423560 169 20 26 5.059415
-0.281250 0.161111 0.440802 198 23 30 5.059415
-0.267188 0.161111 0.439243 208 25 32 5.059415
-0.253125 0.161111 0.426595 209 25 32 5.059415
-0.239063 0.161111 0.413175 209 25 32 5.059415
-0.225000 0.161111 0.399747 209 25 32 5.059415
-0.210938 0.161111 0.386327 209 25 32 5.059415
-0.196875 0.161111 0.351628 15 15 15 5.059415
-0.182812 0.161111 0.278163 24 24 24 5.059415
-0.168750 0.161111 0.278821 21 21 21 5.059415
-0.154687 0.161111 0.331087 198 23 30 5.059415
-0.140625 0.161111 0.319204 209 25 32 5.059415
-0.126563 0.161111 0.305782 208 25 32 5.059415
-0.112500 0.161111 0.292356 208 25 32 5.059415
-0.098438 0.161111 0.278934 208 25 32 5.059415
-0.084375 0.161111 0.262706 199 23 30 5.059415
-0.070313 0.161111 0.222852 164 19 25 5.059415
-0.368750 0.163889 -0.431935 24 3 4 5.059415
-0.354688 0.163889 -0.177408 24 3 4 5.059415
-0.340625 0.163889 0.023328 24 3 4 5.059415
-0.326562 0.163889 0.224018 24 3 4 5.059415
-0.312500 0.163889 0.366170 96 11 15 5.059415
-0.298438 0.163889 0.417124 158 19 24 5.059415
-0.284375 0.163889 0.439284 193 23 29 5.059415
-0.270312 0.163889 0.442772 208 24 32 5.059415
-0.256250 0.163889 0.431656 209 25 32 5.059415
-0.242188 0.163889 0.418231 209 25 32 5.059415
-0.228125 0.163889 0.404811 209 25 32 5.059415
-0.214062 0.163889 0.391380 209 25 32 5.059415
-0.200000 0.163889 0.376706 203 24 31 5.059415
-0.185937 0.163889 0.282104 24 24 24 5.059415
-0.171875 0.163889 0.272477 23 23 23 5.059415
-0.157813 0.163889 0.318184 14 14 14 5.059415
-0.143750 0.163889 0.324262 209 25 32 5.059415
-0.129688 0.163889 0.310839 208 25 32 5.059415
-0.115625 0.163889 0.297415 208 25 32 5.059415
-0.101563 0.163889 0.283994 208 25 32 5.059415
-0.087500 0.163889 0.269346 202 24 31 5.059415
-0.073437 0.163889 0.238195 175 21 27 5.059415
-0.059375 0.163889 0.145401 79 9 12 5.059415
-0.357812 0.166667 -0.230884 24 3 4 5.059415
-0.343750 0.166667 -0.027388 24 3 4 5.059415
-0.329688 0.166667 0.042491 16 16 16 5.059415
-0.315625 0.166667 0.345450 73 9 11 5.059415
-0.301562 0.166667 0.408318 145 17 22 5.059415
-0.287500 0.166667 0.436808 186 22 28 5.059415
-0.273438 0.166667 0.445748 206 24 31 5.059415
-0.259375 0.166667 0.436713 209 25 32 5.059415
-0.245312 0.166667 0.423288 209 25 32 5.059415
-0.231250 0.166667 0.409870 209 25 32 5.059415
-0.217187 0.166667 0.396438 209 25 32 5.059415
-0.203125 0.166667 0.383016 209 25 32 5.059415
-0.189063 0.166667 0.289477 22 22 22 5.059415
-0.175000 0.166667 0.270876 24 24 24 5.059415
-0.160938 0.166667 0.299919 17 17 17 5.059415
-0.146875 0.166667 0.329320 209 25 32 5.059415
-0.132813 0.166667 0.315897 209 25 32 5.059415
-0.118750 0.166667 0.302476 208 25 32 5.059415
-0.104687 0.166667 0.289053 208 25 32 5.059415
-0.090625 0.166667 0.275626 208 25 32 5.059415
-0.076563 0.166667 0.250927 186 22 28 5.059415
-0.062500 0.166667 0.188127 123 15 19 5.059415
-0.360938 0.169444 -0.284685 24 3 4 5.059415
-0.346875 0.169444 -0.078104 24 3 4 5.059415
-0.332812 0.169444 0.039358 20 20 20 5.059415
-0.318750 0.169444 0.316691 48 6 7 5.059415
-0.304688 0.169444 0.398664 129 15 20 5.059415
-0.290625 0.169444 0.433895 179 21 27 5.059415
-0.276563 0.169444 0.446371 202 24 31 5.059415
-0.262500 0.169444 0.441770 209 25 32 5.059415
-0.248437 0.169444 0.428346 209 25 32 5.059415
-0.234375 0.169444 0.414928 209 25 32 5.059415
-0.220313 0.169444 0.401497 209 25 32 5.059415
-0.206250 0.169444 0.388077 209 25 32 5.059415
-0.192188 0.169444 0.299816 20 20 20 5.059415
-0.178125 0.169444 0.270581 25 25 25 5.059415
-0.164063 0.169444 0.286320 19 19 19 5.059415
-0.150000 0.169444 0.334378 209 25 32 5.059415
-0.135937 0.169444 0.320955 209 25 32 5.059415
-0.121875 0.169444 0.307534 208 25 32 5.059415
-0.107813 0.169444 0.294111 208 25 32 5.059415
-0.093750 0.169444 0.280686 208 25 32 5.059415
-0.079687 0.169444 0.261264 194 23 29 5.059415
-0.065625 0.169444 0.213165 148 17 22 5.059415
-0.364062 0.172222 -0.338486 24 3 4 5.059415
-0.350000 0.172222 -0.128819 24 3 4 5.059415
-0.335938 0.172222 0.035138 147 17 22 5.059415
-0.321875 0.172222 0.272630 24 3 4 5.059415
-0.307813 0.172222 0.385150 111 13 17 5.059415
-0.293750 0.172222 0.428567 167 20 25 5.059415
-0.279687 0.172222 0.446857 198 23 30 5.059415
-0.265625 0.172222 0.445797 209 25 32 5.059415
-0.251563 0.172222 0.433407 209 25 32 5.059415
-0.237500 0.172222 0.419984 209 25 32 5.059415
-0.223438 0.172222 0.406558 209 25 32 5.059415
-0.209375 0.172222 0.393133 209 25 32 5.059415
-0.195313 0.172222 0.330909 16 16 16 5.059415
-0.181250 0.172222 0.270286 25 25 25 5.059415
-0.167187 0.172222 0.281036 21 21 21 5.059415
-0.153125 0.172222 0.338086 185 22 28 5.059415
-0.139062 0.172222 0.326014 209 25 32 5.059415
-0.125000 0.172222 0.312593 208 25 32 5.059415
-0.110937 0.172222 0.299166 208 25 32 5.059415
-0.096875 0.172222 0.285745 208 25 32 5.059415
-0.082813 0.172222 0.269770 199 24 30 5.059415
-0.068750 0.172222 0.231309 166 20 25 5.059415
-0.367188 0.175000 -0.394966 24 3 4 5.059415
-0.353125 0.175000 -0.179533 24 3 4 5.059415
-0.339063 0.175000 0.021212 24 3 4 5.059415
-0.325000 0.175000 0.221897 24 3 4 5.059415
-0.310937 0.175000 0.369718 93 11 14 5.059415
-0.296875 0.175000 0.422031 156 18 24 5.059415
-0.282813 0.175000 0.444872 192 23 29 5.059415
-0.268750 0.175000 0.449334 208 24 32 5.059415
-0.254687 0.175000 0.438466 209 25 32 5.059415
-0.240625 0.175000 0.425041 210 25 32 5.059415
-0.226563 0.175000 0.411622 210 25 32 5.059415
-0.212500 0.175000 0.398192 209 25 32 5.059415
-0.198437 0.175000 0.378374 154 18 23 5.059415
-0.184375 0.175000 0.277552 25 25 25 5.059415
-0.170312 0.175000 0.276683 23 23 23 5.059415
-0.156250 0.175000 0.330728 84 10 13 5.059415
-0.142188 0.175000 0.331074 209 25 32 5.059415
-0.128125 0.175000 0.317650 209 25 32 5.059415
-0.114063 0.175000 0.304224 208 25 32 5.059415
-0.100000 0.175000 0.290805 208 25 32 5.059415
-0.085938 0.175000 0.276410 202 24 31 5.059415
-0.071875 0.175000 0.246652 177 21 27 5.059415
-0.057813 0.175000 0.162339 89 11 14 5.059415
-0.356250 0.177778 -0.230233 24 3 4 5.059415
-0.342187 0.177778 -0.029509 24 3 4 5.059415
-0.328125 0.177778 0.036520 20 20 20 5.059415
-0.314063 0.177778 0.347718 68 8 10 5.059415
-0.300000 0.177778 0.412821 143 17 22 5.059415
-0.285937 0.177778 0.442408 185 22 28 5.059415
-0.271875 0.177778 0.451858 206 24 31 5.059415
-0.257813 0.177778 0.443524 210 25 32 5.059415
-0.243750 0.177778 0.430098 210 25 32 5.059415
-0.229687 0.177778 0.416681 210 25 32 5.059415
-0.215625 0.177778 0.403252 210 25 32 5.059415
-0.201562 0.177778 0.389828 209 25 32 5.059415
-0.187500 0.177778 0.288295 22 22 22 5.059415
-0.173438 0.177778 0.272330 24 24 24 5.059415
-0.159375 0.177778 0.314756 15 15 15 5.059415
-0.145313 0.177778 0.336131 209 25 32 5.059415
-0.131250 0.177778 0.322707 209 25 32 5.059415
-0.117188 0.177778 0.309285 208 25 32 5.059415
-0.103125 0.177778 0.295864 208 25 32 5.059415
-0.089062 0.177778 0.282437 208 25 32 5.059415
-0.075000 0.177778 0.258583 187 22 28 5.059415
-0.060938 0.177778 0.198806 128 15 19 5.059415
-0.359375 0.180556 -0.280949 24 3 4 5.059415
-0.345313 0.180556 -0.080230 24 3 4 5.059415
-0.331250 0.180556 0.032154 21 21 21 5.059415
-0.317187 0.180556 0.316631 45 5 7 5.059415
-0.303125 0.180556 0.402875 127 15 19 5.059415
-0.289063 0.180556 0.439103 177 21 27 5.059415
-0.275000 0.180556 0.452481 202 24 31 5.059415
-0.260938 0.180556 0.448581 210 25 32 5.059415
-0.246875 0.180556 0.435158 210 25 32 5.059415
-0.232812 0.180556 0.421738 210 25 32 5.059415
-0.218750 0.180556 0.408312 210 25 32 5.059415
-0.204688 0.180556 0.394887 210 25 32 5.059415
-0.190625 0.180556 0.313386 19 19 19 5.059415
-0.176563 0.180556 0.271847 24 24 24 5.059415
-0.162500 0.180556 0.299308 17 17 17 5.059415
-0.148438 0.180556 0.341191 209 25 32 5.059415
-0.134375 0.180556 0.327767 209 25 32 5.059415
-0.120312 0.180556 0.313114 195 23 30 5.059415
-0.106250 0.180556 0.300921 208 25 32 5.059415
-0.092188 0.180556 0.287497 208 25 32 5.059415
-0.078125 0.180556 0.268919 195 23 30 5.059415
-0.064062 0.180556 0.222489 152 18 23 5.059415
-0.362500 0.183333 -0.331662 24 3 4 5.059415
-0.348437 0.183333 -0.130945 24 3 4 5.059415
-0.334375 0.183333 0.027942 166 20 25 5.059415
-0.320313 0.183333 0.270520 24 3 4 5.059415
-0.306250 0.183333 0.388698 108 13 16 5.059415
-0.292188 0.183333 0.433574 166 20 25 5.059415
-0.278125 0.183333 0.452912 197 23 30 5.059415
-0.264062 0.183333 0.452351 209 25 32 5.059415
-0.250000 0.183333 0.440219 210 25 32 5.059415
-0.235938 0.183333 0.426794 210 25 32 5.059415
-0.221875 0.183333 0.413372 210 25 32 5.059415
-0.207813 0.183333 0.399946 210 25 32 5.059415
-0.193750 0.183333 0.339893 15 15 15 5.059415
-0.179688 0.183333 0.276392 24 24 24 5.059415
-0.165625 0.183333 0.292150 19 19 19 5.059415
-0.151562 0.183333 0.346250 209 25 32 5.059415
-0.137500 0.183333 0.332828 209 25 32 5.059415
-0.123438 0.183333 0.312529 195 23 30 5.059415
-0.109375 0.183333 0.305975 208 25 32 5.059415
-0.095312 0.183333 0.292556 208 25 32 5.059415
-0.081250 0.183333 0.276835 200 24 30 5.059415
-0.067188 0.183333 0.239766 168 20 25 5.059415
-0.365625 0.186111 -0.385026 24 3 4 5.059415
-0.351563 0.186111 -0.181660 24 3 4 5.059415
-0.337500 0.186111 0.018579 63 7 10 5.059415
-0.323438 0.186111 0.216936 24 3 4 5.059415
-0.309375 0.186111 0.373130 91 11 14 5.059415
-0.295312 0.186111 0.426911 154 18 23 5.059415
-0.281250 0.186111 0.450463 191 23 29 5.059415
-0.267188 0.186111 0.455895 208 25 32 5.059415
-0.253125 0.186111 0.445277 210 25 32 5.059415
-0.239063 0.186111 0.431850 210 25 32 5.059415
-0.225000 0.186111 0.418433 210 25 32 5.059415
-0.210938 0.186111 0.405004 210 25 32 5.059415
-0.196875 0.186111 0.389527 183 22 28 5.059415
-0.182812 0.186111 0.282159 22 22 22 5.059415
-0.168750 0.186111 0.288848 20 20 20 5.059415
-0.154687 0.186111 0.350354 201 24 30 5.059415
-0.140625 0.186111 0.337885 209 25 32 5.059415
-0.126563 0.186111 0.311275 167 20 25 5.059415
-0.112500 0.186111 0.310463 212 25 32 5.059415
-0.098438 0.186111 0.297616 208 25 32 5.059415
-0.084375 0.186111 0.283473 203 24 31 5.059415
-0.070313 0.186111 0.255108 179 21 27 5.059415
-0.056250 0.186111 0.175390 98 12 15 5.059415
-0.368750 0.188889 -0.438827 24 3 4 5.059415
-0.354688 0.188889 -0.232609 24 3 4 5.059415
-0.340625 0.188889 -0.031631 24 3 4 5.059415
-0.326562 0.188889 0.030871 21 21 21 5.059415
-0.312500 0.188889 0.349985 64 8 10 5.059415
-0.298438 0.188889 0.417325 141 17 21 5.059415
-0.284375 0.188889 0.448009 184 22 28 5.059415
-0.270312 0.188889 0.457967 205 24 31 5.059415
-0.256250 0.188889 0.450334 210 25 32 5.059415
-0.242188 0.188889 0.436909 210 25 32 5.059415
-0.228125 0.188889 0.423491 210 25 32 5.059415
-0.214062 0.188889 0.410065 210 25 32 5.059415
-0.200000 0.188889 0.396637 210 25 32 5.059415
-0.185937 0.188889 0.305180 20 20 20 5.059415
-0.171875 0.188889 0.289586 21 21 21 5.059415
-0.157813 0.188889 0.345081 24 3 4 5.059415
-0.143750 0.188889 0.342941 209 25 32 5.059415
-0.129688 0.188889 0.309352 16 16 16 5.059415
-0.115625 0.188889 0.304497 177 21 27 5.059415
-0.101563 0.188889 0.302675 208 25 32 5.059415
-0.087500 0.188889 0.289248 208 25 32 5.059415
-0.073437 0.188889 0.266239 189 22 29 5.059415
-0.059375 0.188889 0.208929 132 16 20 5.059415
-0.357812 0.191667 -0.283058 24 3 4 5.059415
-0.343750 0.191667 -0.082337 24 3 4 5.059415
-0.329688 0.191667 0.028942 23 23 23 5.059415
-0.315625 0.191667 0.316648 42 5 6 5.059415
-0.301562 0.191667 0.407086 124 15 19 5.059415
-0.287500 0.191667 0.444311 175 21 27 5.059415
-0.273438 0.191667 0.458568 202 24 31 5.059415
-0.259375 0.191667 0.455392 210 25 32 5.059415
-0.245312 0.191667 0.441970 210 25 32 5.059415
-0.231250 0.191667 0.428547 210 25 32 5.059415
-0.217187 0.191667 0.415125 210 25 32 5.059415
-0.203125 0.191667 0.401697 210 25 32 5.059415
-0.189063 0.191667 0.330926 16 16 16 5.059415
-0.175000 0.191667 0.292066 21 21 21 5.059415
-0.160938 0.191667 0.332661 12 12 12 5.059415
-0.146875 0.191667 0.348002 209 25 32 5.059415
-0.132813 0.191667 0.310953 17 17 17 5.059415
-0.118750 0.191667 0.293461 17 17 17 5.059415
-0.104687 0.191667 0.307730 208 25 32 5.059415
-0.090625 0.191667 0.294308 208 25 32 5.059415
-0.076563 0.191667 0.276575 197 23 30 5.059415
-0.062500 0.191667 0.231814 155 18 24 5.059415
-0.360938 0.194444 -0.333766 24 3 4 5.059415
-0.346875 0.194444 -0.133072 24 3 4 5.059415
-0.332812 0.194444 0.028033 175 21 27 5.059415
-0.318750 0.194444 0.268414 24 3 4 5.059415
-0.304688 0.194444 0.392245 105 12 16 5.059415
-0.290625 0.194444 0.438581 164 19 25 5.059415
-0.276563 0.194444 0.458708 196 23 30 5.059415
-0.262500 0.194444 0.458906 209 25 32 5.059415
-0.248437 0.194444 0.447030 210 25 32 5.059415
-0.234375 0.194444 0.433604 210 25 32 5.059415
-0.220313 0.194444 0.420184 210 25 32 5.059415
-0.206250 0.194444 0.406756 210 25 32 5.059415
-0.192188 0.194444 0.356671 13 13 13 5.059415
-0.178125 0.194444 0.299096 20 20 20 5.059415
-0.164063 0.194444 0.319763 13 13 13 5.059415
-0.150000 0.194444 0.353063 209 25 32 5.059415
-0.135937 0.194444 0.317492 16 16 16 5.059415
-0.121875 0.194444 0.284431 18 18 18 5.059415
-0.107813 0.194444 0.309559 195 23 30 5.059415
-0.093750 0.194444 0.299367 208 25 32 5.059415
-0.079687 0.194444 0.283899 201 24 30 5.059415
-0.065625 0.194444 0.248223 170 20 26 5.059415
-0.364062 0.197222 -0.384486 24 3 4 5.059415
-0.350000 0.197222 -0.271343 11 11 11 5.059415
-0.335938 0.197222 0.016960 24 3 4 5.059415
-0.321875 0.197222 0.217689 24 3 4 5.059415
-0.307813 0.197222 0.375479 86 10 13 5.059415
-0.293750 0.197222 0.431329 153 18 23 5.059415
-0.279687 0.197222 0.456064 190 22 29 5.059415
-0.265625 0.197222 0.462457 208 25 32 5.059415
-0.251563 0.197222 0.452088 210 25 32 5.059415
-0.237500 0.197222 0.438662 210 25 32 5.059415
-0.223438 0.197222 0.425244 210 25 32 5.059415
-0.209375 0.197222 0.411816 210 25 32 5.059415
-0.195313 0.197222 0.398392 210 25 32 5.059415
-0.181250 0.197222 0.319416 17 17 17 5.059415
-0.167187 0.197222 0.316327 15 15 15 5.059415
-0.153125 0.197222 0.358120 209 25 32 5.059415
-0.139062 0.197222 0.327913 13 13 13 5.059415
-0.125000 0.197222 0.281620 22 22 22 5.059415
-0.110937 0.197222 0.295732 15 15 15 5.059415
-0.096875 0.197222 0.304427 208 25 32 5.059415
-0.082813 0.197222 0.290537 204 24 31 5.059415
-0.068750 0.197222 0.263558 181 21 27 5.059415
-0.054688 0.197222 0.188442 106 13 16 5.059415
-0.367188 0.200000 -0.435530 24 3 4 5.059415
-0.353125 0.200000 -0.281017 14 14 14 5.059415
-0.339063 0.200000 -0.033765 24 3 4 5.059415
-0.325000 0.200000 0.040957 20 20 20 5.059415
-0.310937 0.200000 0.352253 60 7 9 5.059415
-0.296875 0.200000 0.421829 139 16 21 5.059415
-0.282813 0.200000 0.453609 183 22 28 5.059415
-0.268750 0.200000 0.464077 205 24 31 5.059415
-0.254687 0.200000 0.457145 210 25 32 5.059415
-0.240625 0.200000 0.443722 210 25 32 5.059415
-0.226563 0.200000 0.430300 210 25 32 5.059415
-0.212500 0.200000 0.416875 210 25 32 5.059415
-0.198437 0.200000 0.403453 210 25 32 5.059415
-0.184375 0.200000 0.341854 14 14 14 5.059415
-0.170312 0.200000 0.314620 16 16 16 5.059415
-0.156250 0.200000 0.363177 210 25 32 5.059415
-0.142188 0.200000 0.343587 159 19 24 5.059415
-0.128125 0.200000 0.278809 23 23 23 5.059415
-0.114063 0.200000 0.282918 17 17 17 5.059415
-0.100000 0.200000 0.309486 209 25 32 5.059415
-0.085938 0.200000 0.296059 208 25 32 5.059415
-0.071875 0.200000 0.273895 190 22 29 5.059415
-0.057813 0.200000 0.219052 136 16 21 5.059415
-0.356250 0.202778 -0.294948 89 11 14 5.059415
-0.342187 0.202778 -0.084448 24 3 4 5.059415
-0.328125 0.202778 0.038009 20 20 20 5.059415
-0.314063 0.202778 0.316734 39 5 6 5.059415
-0.300000 0.202778 0.410975 121 14 18 5.059415
-0.285937 0.202778 0.449519 173 20 26 5.059415
-0.271875 0.202778 0.464623 201 24 31 5.059415
-0.257813 0.202778 0.462005 210 25 32 5.059415
-0.243750 0.202778 0.448783 210 25 32 5.059415
-0.229687 0.202778 0.435357 210 25 32 5.059415
-0.215625 0.202778 0.421935 210 25 32 5.059415
-0.201562 0.202778 0.408510 210 25 32 5.059415
-0.187500 0.202778 0.394414 185 22 28 5.059415
-0.173438 0.202778 0.322488 16 16 16 5.059415
-0.159375 0.202778 0.368237 210 25 32 5.059415
-0.145313 0.202778 0.354812 209 25 32 5.059415
-0.131250 0.202778 0.275998 23 23 23 5.059415
-0.117188 0.202778 0.271435 20 20 20 5.059415
-0.103125 0.202778 0.310879 180 21 27 5.059415
-0.089062 0.202778 0.301119 208 25 32 5.059415
-0.075000 0.202778 0.284231 198 23 30 5.059415
-0.060938 0.202778 0.241138 159 19 24 5.059415
-0.359375 0.205556 -0.335901 24 3 4 5.059415
-0.345313 0.205556 -0.135152 24 3 4 5.059415
-0.331250 0.205556 0.035951 149 18 23 5.059415
-0.317187 0.205556 0.266296 24 3 4 5.059415
-0.303125 0.205556 0.395793 103 12 16 5.059415
-0.289063 0.205556 0.443588 163 19 25 5.059415
-0.275000 0.205556 0.464296 196 23 30 5.059415
-0.260938 0.205556 0.465460 209 25 32 5.059415
-0.246875 0.205556 0.453841 210 25 32 5.059415
-0.232812 0.205556 0.440414 210 25 32 5.059415
-0.218750 0.205556 0.426995 210 25 32 5.059415
-0.204688 0.205556 0.413567 210 25 32 5.059415
-0.190625 0.205556 0.400143 210 25 32 5.059415
-0.176563 0.205556 0.352193 12 12 12 5.059415
-0.162500 0.205556 0.373297 210 25 32 5.059415
-0.148438 0.205556 0.359869 210 25 32 5.059415
-0.134375 0.205556 0.285483 21 21 21 5.059415
-0.120312 0.205556 0.266807 23 23 23 5.059415
-0.106250 0.205556 0.302563 14 14 14 5.059415
-0.092188 0.205556 0.306178 208 25 32 5.059415
-0.078125 0.205556 0.290962 201 24 31 5.059415
-0.064062 0.205556 0.256680 172 20 26 5.059415
-0.050000 0.205556 0.139860 54 6 8 5.059415
-0.362500 0.208333 -0.386592 24 3 4 5.059415
-0.348437 0.208333 -0.303899 17 17 17 5.059415
-0.334375 0.208333 0.014831 24 3 4 5.059415
-0.320313 0.208333 0.215566 24 3 4 5.059415
-0.306250 0.208333 0.377828 82 10 13 5.059415
-0.292188 0.208333 0.435747 151 18 23 5.059415
-0.278125 0.208333 0.461664 189 22 29 5.059415
-0.264062 0.208333 0.469018 208 24 32 5.059415
-0.250000 0.208333 0.458898 210 25 32 5.059415
-0.235938 0.208333 0.445473 210 25 32 5.059415
-0.221875 0.208333 0.432053 210 25 32 5.059415
-0.207813 0.208333 0.418626 210 25 32 5.059415
-0.193750 0.208333 0.405203 210 25 32 5.059415
-0.179688 0.208333 0.386723 154 18 23 5.059415
-0.165625 0.208333 0.378358 210 25 32 5.059415
-0.151562 0.208333 0.364928 210 25 32 5.059415
-0.137500 0.208333 0.305217 18 18 18 5.059415
-0.123438 0.208333 0.264705 25 25 25 5.059415
-0.109375 0.208333 0.283769 17 17 17 5.059415
-0.095312 0.208333 0.311237 209 25 32 5.059415
-0.081250 0.208333 0.297601 204 24 31 5.059415
-0.067188 0.208333 0.271214 183 22 28 5.059415
-0.053125 0.208333 0.200252 112 13 17 5.059415
-0.365625 0.211111 -0.441587 24 3 4 5.059415
-0.351563 0.211111 -0.307336 20 20 20 5.059415
-0.337500 0.211111 -0.035871 24 3 4 5.059415
-0.323438 0.211111 0.059544 15 15 15 5.059415
-0.309375 0.211111 0.354161 56 7 8 5.059415
-0.295312 0.211111 0.426332 137 16 21 5.059415
-0.281250 0.211111 0.459210 182 21 28 5.059415
-0.267188 0.211111 0.470187 205 24 31 5.059415
-0.253125 0.211111 0.463956 210 25 32 5.059415
-0.239063 0.211111 0.450534 210 25 32 5.059415
-0.225000 0.211111 0.437109 210 25 32 5.059415
-0.210938 0.211111 0.423685 210 25 32 5.059415
-0.196875 0.211111 0.410262 210 25 32 5.059415
-0.182812 0.211111 0.396839 210 25 32 5.059415
-0.168750 0.211111 0.383418 210 25 32 5.059415
-0.154687 0.211111 0.369989 210 25 32 5.059415
-0.140625 0.211111 0.321787 15 15 15 5.059415
-0.126563 0.211111 0.264528 25 25 25 5.059415
-0.112500 0.211111 0.272905 20 20 20 5.059415
-0.098438 0.211111 0.316297 209 25 32 5.059415
-0.084375 0.211111 0.302870 208 25 32 5.059415
-0.070313 0.211111 0.281551 192 23 29 5.059415
-0.056250 0.211111 0.229175 140 16 21 5.059415
-0.354688 0.213889 -0.313238 129 15 20 5.059415
-0.340625 0.213889 -0.086560 24 3 4 5.059415
-0.326562 0.213889 0.057184 17 17 17 5.059415
-0.312500 0.213889 0.314899 24 3 4 5.059415
-0.298438 0.213889 0.414566 118 14 18 5.059415
-0.284375 0.213889 0.454573 172 20 26 5.059415
-0.270312 0.213889 0.470678 200 24 30 5.059415
-0.256250 0.213889 0.468560 210 25 32 5.059415
-0.242188 0.213889 0.455594 210 25 32 5.059415
-0.228125 0.213889 0.442166 210 25 32 5.059415
-0.214062 0.213889 0.428745 210 25 32 5.059415
-0.200000 0.213889 0.415322 210 25 32 5.059415
-0.185937 0.213889 0.401896 210 25 32 5.059415
-0.171875 0.213889 0.388475 210 25 32 5.059415
-0.157813 0.213889 0.375048 210 25 32 5.059415
-0.143750 0.213889 0.338196 12 12 12 5.059415
-0.129688 0.213889 0.264622 24 24 24 5.059415
-0.115625 0.213889 0.264518 22 22 22 5.059415
-0.101563 0.213889 0.317813 186 22 28 5.059415
-0.087500 0.213889 0.307930 209 25 32 5.059415
-0.073437 0.213889 0.291387 199 23 30 5.059415
-0.059375 0.213889 0.249792 162 19 25 5.059415
-0.357812 0.216667 -0.337990 24 3 4 5.059415
-0.343750 0.216667 -0.307422 18 18 18 5.059415
-0.329688 0.216667 0.053606 109 13 17 5.059415
-0.315625 0.216667 0.264184 24 3 4 5.059415
-0.301562 0.216667 0.399340 100 12 15 5.059415
-0.287500 0.216667 0.448497 161 19 24 5.059415
-0.273438 0.216667 0.469884 195 23 30 5.059415
-0.259375 0.216667 0.472018 209 25 32 5.059415
-0.245312 0.216667 0.460652 210 25 32 5.059415
-0.231250 0.216667 0.447226 210 25 32 5.059415
-0.217187 0.216667 0.433806 210 25 32 5.059415
-0.203125 0.216667 0.420382 210 25 32 5.059415
-0.189063 0.216667 0.406953 210 25 32 5.059415
-0.175000 0.216667 0.393532 210 25 32 5.059415
-0.160938 0.216667 0.380109 210 25 32 5.059415
-0.146875 0.216667 0.366202 205 24 31 5.059415
-0.132813 0.216667 0.278727 22 22 22 5.059415
-0.118750 0.216667 0.259262 24 24 24 5.059415
-0.104687 0.216667 0.302746 15 15 15 5.059415
-0.090625 0.216667 0.312989 209 25 32 5.059415
-0.076563 0.216667 0.298026 202 24 31 5.059415
-0.062500 0.216667 0.265137 174 20 26 5.059415
-0.048437 0.216667 0.159000 66 8 10 5.059415
-0.360938 0.219444 -0.388698 24 3 4 5.059415
-0.346875 0.219444 -0.312692 20 20 20 5.059415
-0.332812 0.219444 0.012691 24 3 4 5.059415
-0.318750 0.219444 0.213452 24 3 4 5.059415
-0.304688 0.219444 0.380177 78 9 12 5.059415
-0.290625 0.219444 0.440165 148 17 23 5.059415
-0.276563 0.219444 0.467265 188 22 29 5.059415
-0.262500 0.219444 0.475580 208 24 32 5.059415
-0.248437 0.219444 0.465709 210 25 32 5.059415
-0.234375 0.219444 0.452283 210 25 32 5.059415
-0.220313 0.219444 0.438863 210 25 32 5.059415
-0.206250 0.219444 0.424748 208 25 32 5.059415
-0.192188 0.219444 0.412012 210 25 32 5.059415
-0.178125 0.219444 0.398590 210 25 32 5.059415
-0.164063 0.219444 0.385168 210 25 32 5.059415
-0.150000 0.219444 0.371741 210 25 32 5.059415
-0.135937 0.219444 0.294454 20 20 20 5.059415
-0.121875 0.219444 0.258061 25 25 25 5.059415
-0.107813 0.219444 0.284396 18 18 18 5.059415
-0.093750 0.219444 0.318049 209 25 32 5.059415
-0.079687 0.219444 0.304622 208 25 32 5.059415
-0.065625 0.219444 0.278870 184 22 28 5.059415
-0.051562 0.219444 0.211537 117 14 18 5.059415
-0.364062 0.222222 -0.447644 24 3 4 5.059415
-0.350000 0.222222 -0.317061 21 21 21 5.059415
-0.335938 0.222222 -0.037983 24 3 4 5.059415
-0.321875 0.222222 0.121114 24 3 4 5.059415
-0.307813 0.222222 0.354101 52 6 8 5.059415
-0.293750 0.222222 0.430836 134 16 20 5.059415
-0.279687 0.222222 0.464811 181 21 28 5.059415
-0.265625 0.222222 0.476296 204 24 31 5.059415
-0.251563 0.222222 0.470766 210 25 32 5.059415
-0.237500 0.222222 0.457346 210 25 32 5.059415
-0.223438 0.222222 0.443919 210 25 32 5.059415
-0.209375 0.222222 0.427483 192 23 29 5.059415
-0.195313 0.222222 0.416394 208 25 32 5.059415
-0.181250 0.222222 0.403648 210 25 32 5.059415
-0.167187 0.222222 0.390228 210 25 32 5.059415
-0.153125 0.222222 0.376799 210 25 32 5.059415
-0.139062 0.222222 0.307967 18 18 18 5.059415
-0.125000 0.222222 0.257766 25 25 25 5.059415
-0.110937 0.222222 0.272179 20 20 20 5.059415
-0.096875 0.222222 0.323109 209 25 32 5.059415
-0.082813 0.222222 0.309681 209 25 32 5.059415
-0.068750 0.222222 0.289207 193 23 29 5.059415
-0.054688 0.222222 0.239022 143 17 22 5.059415
-0.353125 0.225000 -0.321803 163 19 25 5.059415
-0.339063 0.225000 -0.088672 24 3 4 5.059415
-0.325000 0.225000 0.096263 54 6 8 5.059415
-0.310937 0.225000 0.312782 24 3 4 5.059415
-0.296875 0.225000 0.418156 115 14 17 5.059415
-0.282813 0.225000 0.459580 170 20 26 5.059415
-0.268750 0.225000 0.476733 200 24 30 5.059415
-0.254687 0.225000 0.475114 210 25 32 5.059415
-0.240625 0.225000 0.462405 210 25 32 5.059415
-0.226563 0.225000 0.448978 210 25 32 5.059415
-0.212500 0.225000 0.429232 187 22 28 5.059415
-0.198437 0.225000 0.411997 183 22 28 5.059415
-0.184375 0.225000 0.408707 210 25 32 5.059415
-0.170312 0.225000 0.395286 210 25 32 5.059415
-0.156250 0.225000 0.381859 210 25 32 5.059415
-0.142188 0.225000 0.321481 16 16 16 5.059415
-0.128125 0.225000 0.259019 25 25 25 5.059415
-0.114063 0.225000 0.267826 23 23 23 5.059415
-0.100000 0.225000 0.326074 192 23 29 5.059415
-0.085938 0.225000 0.314741 209 25 32 5.059415
-0.071875 0.225000 0.298451 199 24 30 5.059415
-0.057813 0.225000 0.258249 164 19 25 5.059415
-0.356250 0.227778 -0.340103 24 3 4 5.059415
-0.342187 0.227778 -0.312821 20 20 20 5.059415
-0.328125 0.227778 0.061344 24 3 4 5.059415
-0.314063 0.227778 0.262043 24 3 4 5.059415
-0.300000 0.227778 0.402888 97 11 15 5.059415
-0.285937 0.227778 0.453404 159 19 24 5.059415
-0.271875 0.227778 0.475472 194 23 29 5.059415
-0.257813 0.227778 0.478579 209 25 32 5.059415
-0.243750 0.227778 0.467462 210 25 32 5.059415
-0.229687 0.227778 0.454037 210 25 32 5.059415
-0.215625 0.227778 0.431951 182 21 28 5.059415
-0.201562 0.227778 0.404851 15 15 15 5.059415
-0.187500 0.227778 0.413764 210 25 32 5.059415
-0.173438 0.227778 0.400345 210 25 32 5.059415
-0.159375 0.227778 0.386918 210 25 32 5.059415
-0.145313 0.227778 0.372181 177 21 27 5.059415
-0.131250 0.227778 0.271264 24 24 24 5.059415
-0.117188 0.227778 0.263474 25 25 25 5.059415
-0.103125 0.227778 0.316540 15 15 15 5.059415
-0.089062 0.227778 0.319800 209 25 32 5.059415
-0.075000 0.227778 0.305090 203 24 31 5.059415
-0.060938 0.227778 0.273594 176 21 27 5.059415
-0.046875 0.227778 0.178141 77 9 12 5.059415
-0.359375 0.230556 -0.390804 24 3 4 5.059415
-0.345313 0.230556 -0.318342 21 21 21 5.059415
-0.331250 0.230556 0.010591 24 3 4 5.059415
-0.317187 0.230556 0.211334 24 3 4 5.059415
-0.303125 0.230556 0.382483 74 9 11 5.059415
-0.289063 0.230556 0.444584 146 17 22 5.059415
-0.275000 0.230556 0.472866 187 22 28 5.059415
-0.260938 0.230556 0.481783 207 24 31 5.059415
-0.246875 0.230556 0.472520 211 25 32 5.059415
-0.232812 0.230556 0.459095 211 25 32 5.059415
-0.218750 0.230556 0.439463 180 21 27 5.059415
-0.204688 0.230556 0.396231 17 17 17 5.059415
-0.190625 0.230556 0.413606 181 21 28 5.059415
-0.176563 0.230556 0.405403 210 25 32 5.059415
-0.162500 0.230556 0.391978 210 25 32 5.059415
-0.148438 0.230556 0.378549 210 25 32 5.059415
-0.134375 0.230556 0.284764 22 22 22 5.059415
-0.120312 0.230556 0.259121 25 25 25 5.059415
-0.106250 0.230556 0.301056 16 16 16 5.059415
-0.092188 0.230556 0.324860 209 25 32 5.059415
-0.078125 0.230556 0.311433 209 25 32 5.059415
-0.064062 0.230556 0.286526 186 22 28 5.059415
-0.050000 0.230556 0.222821 122 14 19 5.059415
-0.348437 0.233333 -0.321305 23 23 23 5.059415
-0.334375 0.233333 -0.040094 24 3 4 5.059415
-0.320313 0.233333 0.152103 27 3 4 5.059415
-0.306250 0.233333 0.354041 49 6 7 5.059415
-0.292188 0.233333 0.435139 132 16 20 5.059415
-0.278125 0.233333 0.470121 180 21 27 5.059415
-0.264062 0.233333 0.482389 204 24 31 5.059415
-0.250000 0.233333 0.477577 211 25 32 5.059415
-0.235938 0.233333 0.464158 211 25 32 5.059415
-0.221875 0.233333 0.450340 190 22 29 5.059415
-0.207813 0.233333 0.393780 18 18 18 5.059415
-0.193750 0.233333 0.399688 15 15 15 5.059415
-0.179688 0.233333 0.410461 210 25 32 5.059415
-0.165625 0.233333 0.397037 210 25 32 5.059415
-0.151562 0.233333 0.383609 210 25 32 5.059415
-0.137500 0.233333 0.298264 20 20 20 5.059415
-0.123438 0.233333 0.261381 25 25 25 5.059415
-0.109375 0.233333 0.288615 18 18 18 5.059415
-0.095312 0.233333 0.329919 209 25 32 5.059415
-0.081250 0.233333 0.316492 209 25 32 5.059415
-0.067188 0.233333 0.296863 195 23 30 5.059415
-0.053125 0.233333 0.248347 147 17 22 5.059415
-0.351563 0.236111 -0.323280 165 20 25 5.059415
-0.337500 0.236111 -0.090777 24 3 4 5.059415
-0.323438 0.236111 0.109900 24 3 4 5.059415
-0.309375 0.236111 0.310666 24 3 4 5.059415
-0.295312 0.236111 0.421746 113 13 17 5.059415
-0.281250 0.236111 0.464587 169 20 26 5.059415
-0.267188 0.236111 0.482788 199 23 30 5.059415
-0.253125 0.236111 0.481668 210 25 32 5.059415
-0.239063 0.236111 0.469216 211 25 32 5.059415
-0.225000 0.236111 0.455791 211 25 32 5.059415
-0.210938 0.236111 0.394746 19 19 19 5.059415
-0.196875 0.236111 0.384699 17 17 17 5.059415
-0.182812 0.236111 0.415520 210 25 32 5.059415
-0.168750 0.236111 0.402096 210 25 32 5.059415
-0.154687 0.236111 0.388668 210 25 32 5.059415
-0.140625 0.236111 0.317373 17 17 17 5.059415
-0.126563 0.236111 0.267350 24 24 24 5.059415
-0.112500 0.236111 0.280419 20 20 20 5.059415
-0.098438 0.236111 0.334977 209 25 32 5.059415
-0.084375 0.236111 0.321552 209 25 32 5.059415
-0.070313 0.236111 0.305515 200 24 30 5.059415
-0.056250 0.236111 0.266706 166 20 25 5.059415
-0.354688 0.238889 -0.342230 24 3 4 5.059415
-0.340625 0.238889 -0.310237 20 20 20 5.059415
-0.326562 0.238889 0.059211 24 3 4 5.059415
-0.312500 0.238889 0.259898 24 3 4 5.059415
-0.298438 0.238889 0.406436 95 11 14 5.059415
-0.284375 0.238889 0.458311 158 19 24 5.059415
-0.270312 0.238889 0.481059 193 23 29 5.059415
-0.256250 0.238889 0.485141 209 25 32 5.059415
-0.242188 0.238889 0.474273 211 25 32 5.059415
-0.228125 0.238889 0.460847 211 25 32 5.059415
-0.214062 0.238889 0.398979 19 19 19 5.059415
-0.200000 0.238889 0.379035 19 19 19 5.059415
-0.185937 0.238889 0.413279 152 18 23 5.059415
-0.171875 0.238889 0.407154 210 25 32 5.059415
-0.157813 0.238889 0.393728 210 25 32 5.059415
-0.143750 0.238889 0.379684 200 24 30 5.059415
-0.129688 0.238889 0.278976 22 22 22 5.059415
-0.115625 0.238889 0.276675 22 22 22 5.059415
-0.101563 0.238889 0.339097 201 24 31 5.059415
-0.087500 0.238889 0.326612 209 25 32 5.059415
-0.073437 0.238889 0.312153 203 24 31 5.059415
-0.059375 0.238889 0.282051 178 21 27 5.059415
-0.045313 0.238889 0.196593 87 10 13 5.059415
-0.357812 0.241667 -0.392910 24 3 4 5.059415
-0.343750 0.241667 -0.314127 21 21 21 5.059415
-0.329688 0.241667 0.008483 24 3 4 5.059415
-0.315625 0.241667 0.114132 13 13 13 5.059415
-0.301562 0.241667 0.384750 70 8 11 5.059415
-0.287500 0.241667 0.449002 144 17 22 5.059415
-0.273438 0.241667 0.478466 186 22 28 5.059415
-0.259375 0.241667 0.487893 207 24 31 5.059415
-0.245312 0.241667 0.479330 211 25 32 5.059415
-0.231250 0.241667 0.465908 211 25 32 5.059415
-0.217187 0.241667 0.408870 18 18 18 5.059415
-0.203125 0.241667 0.376933 21 21 21 5.059415
-0.189063 0.241667 0.398094 14 14 14 5.059415
-0.175000 0.241667 0.412213 210 25 32 5.059415
-0.160938 0.241667 0.398787 210 25 32 5.059415
-0.146875 0.241667 0.385360 210 25 32 5.059415
-0.132813 0.241667 0.298163 20 20 20 5.059415
-0.118750 0.241667 0.276904 22 22 22 5.059415
-0.104687 0.241667 0.333718 24 3 4 5.059415
-0.090625 0.241667 0.331671 209 25 32 5.059415
-0.076563 0.241667 0.318244 209 25 32 5.059415
-0.062500 0.241667 0.294182 188 22 28 5.059415
-0.048437 0.241667 0.233789 127 15 19 5.059415
-0.346875 0.244444 -0.315362 22 22 22 5.059415
-0.332812 0.244444 -0.042205 24 3 4 5.059415
-0.318750 0.244444 0.106508 15 15 15 5.059415
-0.304688 0.244444 0.354040 46 5 7 5.059415
-0.290625 0.244444 0.439350 129 15 20 5.059415
-0.276563 0.244444 0.475329 178 21 27 5.059415
-0.262500 0.244444 0.488444 203 24 31 5.059415
-0.248437 0.244444 0.484388 211 25 32 5.059415
-0.234375 0.244444 0.470969 211 25 32 5.059415
-0.220313 0.244444 0.426786 16 16 16 5.059415
-0.206250 0.244444 0.374831 23 23 23 5.059415
-0.192188 0.244444 0.384428 17 17 17 5.059415
-0.178125 0.244444 0.417271 211 25 32 5.059415
-0.164063 0.244444 0.403847 210 25 32 5.059415
-0.150000 0.244444 0.390419 210 25 32 5.059415
-0.135937 0.244444 0.327384 15 15 15 5.059415
-0.121875 0.244444 0.278906 21 21 21 5.059415
-0.107813 0.244444 0.319568 12 12 12 5.059415
-0.093750 0.244444 0.336728 209 25 32 5.059415
-0.079687 0.244444 0.323303 209 25 32 5.059415
-0.065625 0.244444 0.304519 196 23 30 5.059415
-0.051562 0.244444 0.257671 151 18 23 5.059415
-0.350000 0.247222 -0.318087 140 17 21 5.059415
-0.335938 0.247222 -0.092947 24 3 4 5.059415
-0.321875 0.247222 0.096563 98 12 15 5.059415
-0.307813 0.247222 0.308550 24 3 4 5.059415
-0.293750 0.247222 0.425336 110 13 17 5.059415
-0.279687 0.247222 0.469594 167 20 25 5.059415
-0.265625 0.247222 0.488843 198 23 30 5.059415
-0.251563 0.247222 0.488222 210 25 32 5.059415
-0.237500 0.247222 0.476026 211 25 32 5.059415
-0.223438 0.247222 0.452401 90 11 14 5.059415
-0.209375 0.247222 0.375868 23 23 23 5.059415
-0.195313 0.247222 0.374104 20 20 20 5.059415
-0.181250 0.247222 0.421336 199 24 30 5.059415
-0.167187 0.247222 0.408905 210 25 32 5.059415
-0.153125 0.247222 0.395478 210 25 32 5.059415
-0.139062 0.247222 0.381128 173 20 26 5.059415
-0.125000 0.247222 0.284564 20 20 20 5.059415
-0.110937 0.247222 0.309796 14 14 14 5.059415
-0.096875 0.247222 0.341786 209 25 32 5.059415
-0.082813 0.247222 0.328363 209 25 32 5.059415
-0.068750 0.247222 0.312579 201 24 30 5.059415
-0.054688 0.247222 0.275163 168 20 25 5.059415
-0.353125 0.250000 -0.344340 24 3 4 5.059415
-0.339063 0.250000 -0.144668 24 3 4 5.059415
-0.325000 0.250000 0.057086 24 3 4 5.059415
-0.310937 0.250000 0.255458 24 3 4 5.059415
-0.296875 0.250000 0.409938 92 11 14 5.059415
-0.282813 0.250000 0.463218 156 18 24 5.059415
-0.268750 0.250000 0.486647 192 23 29 5.059415
-0.254687 0.250000 0.491702 209 25 32 5.059415
-0.240625 0.250000 0.481084 211 25 32 5.059415
-0.226563 0.250000 0.467581 202 24 31 5.059415
-0.212500 0.250000 0.379250 22 22 22 5.059415
-0.198437 0.250000 0.363911 23 23 23 5.059415
-0.184375 0.250000 0.410385 12 12 12 5.059415
-0.170312 0.250000 0.413964 211 25 32 5.059415
-0.156250 0.250000 0.400537 210 25 32 5.059415
-0.142188 0.250000 0.387117 210 25 32 5.059415
-0.128125 0.250000 0.307727 17 17 17 5.059415
-0.114063 0.250000 0.305017 15 15 15 5.059415
-0.100000 0.250000 0.346846 209 25 32 5.059415
-0.085938 0.250000 0.333422 209 25 32 5.059415
-0.071875 0.250000 0.319217 204 24 31 5.059415
-0.057813 0.250000 0.290508 179 21 27 5.059415
-0.043750 0.250000 0.209645 96 11 15 5.059415
-0.356250 0.252778 -0.395016 24 3 4 5.059415
-0.342187 0.252778 -0.295539 17 17 17 5.059415
-0.328125 0.252778 0.006362 24 3 4 5.059415
-0.314063 0.252778 0.088990 15 15 15 5.059415
-0.300000 0.252778 0.387018 65 8 10 5.059415
-0.285937 0.252778 0.453420 142 17 22 5.059415
-0.271875 0.252778 0.484067 185 22 28 5.059415
-0.257813 0.252778 0.494002 207 24 31 5.059415
-0.243750 0.252778 0.486141 211 25 32 5.059415
-0.229687 0.252778 0.472721 211 25 32 5.059415
-0.215625 0.252778 0.397667 21 21 21 5.059415
-0.201562 0.252778 0.366519 24 24 24 5.059415
-0.187500 0.252778 0.390850 16 16 16 5.059415
-0.173438 0.252778 0.419026 211 25 32 5.059415
-0.159375 0.252778 0.405597 210 25 32 5.059415
-0.145313 0.252778 0.392176 210 25 32 5.059415
-0.131250 0.252778 0.336947 13 13 13 5.059415
-0.117188 0.252778 0.305015 15 15 15 5.059415
-0.103125 0.252778 0.351905 210 25 32 5.059415
-0.089062 0.252778 0.338479 209 25 32 5.059415
-0.075000 0.252778 0.325055 209 25 32 5.059415
-0.060938 0.252778 0.301838 189 22 29 5.059415
-0.046875 0.252778 0.243912 131 16 20 5.059415
-0.345313 0.255556 -0.298796 18 18 18 5.059415
-0.331250 0.255556 -0.044358 24 3 4 5.059415
-0.317187 0.255556 0.085815 20 20 20 5.059415
-0.303125 0.255556 0.354127 43 5 6 5.059415
-0.289063 0.255556 0.443561 126 15 19 5.059415
-0.275000 0.255556 0.480537 176 21 27 5.059415
-0.260938 0.255556 0.494499 203 24 31 5.059415
-0.246875 0.255556 0.491198 211 25 32 5.059415
-0.232812 0.255556 0.477780 211 25 32 5.059415
-0.218750 0.255556 0.415541 19 19 19 5.059415
-0.204688 0.255556 0.369423 25 25 25 5.059415
-0.190625 0.255556 0.379430 19 19 19 5.059415
-0.176563 0.255556 0.424084 211 25 32 5.059415
-0.162500 0.255556 0.410656 211 25 32 5.059415
-0.148438 0.255556 0.397234 210 25 32 5.059415
-0.134375 0.255556 0.383529 200 24 30 5.059415
-0.120312 0.255556 0.324811 14 14 14 5.059415
-0.106250 0.255556 0.356961 210 25 32 5.059415
-0.092188 0.255556 0.343539 209 25 32 5.059415
-0.078125 0.255556 0.330114 209 25 32 5.059415
-0.064062 0.255556 0.312175 197 23 30 5.059415
-0.050000 0.255556 0.266995 155 18 24 5.059415
-0.348437 0.258333 -0.304301 101 12 15 5.059415
-0.334375 0.258333 -0.095065 24 3 4 5.059415
-0.320313 0.258333 0.080363 136 16 21 5.059415
-0.306250 0.258333 0.306433 24 3 4 5.059415
-0.292188 0.258333 0.428926 107 13 16 5.059415
-0.278125 0.258333 0.474601 166 20 25 5.059415
-0.264062 0.258333 0.494896 198 23 30 5.059415
-0.250000 0.258333 0.494776 210 25 32 5.059415
-0.235938 0.258333 0.482837 211 25 32 5.059415
-0.221875 0.258333 0.433906 17 17 17 5.059415
-0.207813 0.258333 0.372353 25 25 25 5.059415
-0.193750 0.258333 0.372208 21 21 21 5.059415
-0.179688 0.258333 0.426749 183 22 28 5.059415
-0.165625 0.258333 0.415715 211 25 32 5.059415
-0.151562 0.258333 0.402292 210 25 32 5.059415
-0.137500 0.258333 0.388871 210 25 32 5.059415
-0.123438 0.258333 0.354548 11 11 11 5.059415
-0.109375 0.258333 0.362019 210 25 32 5.059415
-0.095312 0.258333 0.348597 209 25 32 5.059415
-0.081250 0.258333 0.335173 209 25 32 5.059415
-0.067188 0.258333 0.319642 201 24 31 5.059415
-0.053125 0.258333 0.283620 170 20 26 5.059415
-0.351563 0.261111 -0.346449 24 3 4 5.059415
-0.337500 0.261111 -0.145745 24 3 4 5.059415
-0.323438 0.261111 0.054961 24 3 4 5.059415
-0.309375 0.261111 0.087979 19 19 19 5.059415
-0.295312 0.261111 0.412287 88 10 13 5.059415
-0.281250 0.261111 0.467731 154 18 23 5.059415
-0.267188 0.261111 0.492235 191 23 29 5.059415
-0.253125 0.261111 0.498264 209 25 32 5.059415
-0.239063 0.261111 0.487894 211 25 32 5.059415
-0.225000 0.261111 0.466643 160 19 24 5.059415
-0.210938 0.261111 0.375325 24 24 24 5.059415
-0.196875 0.261111 0.367856 23 23 23 5.059415
-0.182812 0.261111 0.418159 13 13 13 5.059415
-0.168750 0.261111 0.420774 211 25 32 5.059415
-0.154687 0.261111 0.407350 211 25 32 5.059415
-0.140625 0.261111 0.393928 210 25 32 5.059415
-0.126563 0.261111 0.380031 194 23 29 5.059415
-0.112500 0.261111 0.367080 210 25 32 5.059415
-0.098438 0.261111 0.353653 210 25 32 5.059415
-0.084375 0.261111 0.340232 209 25 32 5.059415
-0.070313 0.261111 0.326281 204 24 31 5.059415
-0.056250 0.261111 0.298965 181 21 28 5.059415
-0.042188 0.261111 0.222696 105 12 16 5.059415
-0.354688 0.263889 -0.397122 24 3 4 5.059415
-0.340625 0.263889 -0.258708 8 8 8 5.059415
-0.326562 0.263889 0.004244 24 3 4 5.059415
-0.312500 0.263889 0.082898 20 20 20 5.059415
-0.298438 0.263889 0.389286 61 7 9 5.059415
-0.284375 0.263889 0.457838 140 16 21 5.059415
-0.270312 0.263889 0.489667 184 22 28 5.059415
-0.256250 0.263889 0.500112 206 24 31 5.059415
-0.242188 0.263889 0.492952 211 25 32 5.059415
-0.228125 0.263889 0.479530 211 25 32 5.059415
-0.214062 0.263889 0.386835 22 22 22 5.059415
-0.200000 0.263889 0.363503 24 24 24 5.059415
-0.185937 0.263889 0.400417 16 16 16 5.059415
-0.171875 0.263889 0.425833 211 25 32 5.059415
-0.157813 0.263889 0.412408 211 25 32 5.059415
-0.143750 0.263889 0.398986 210 25 32 5.059415
-0.129688 0.263889 0.385561 210 25 32 5.059415
-0.115625 0.263889 0.372139 210 25 32 5.059415
-0.101563 0.263889 0.358714 210 25 32 5.059415
-0.087500 0.263889 0.345289 209 25 32 5.059415
-0.073437 0.263889 0.331866 209 25 32 5.059415
-0.059375 0.263889 0.309494 191 22 29 5.059415
-0.045313 0.263889 0.254035 135 16 20 5.059415
-0.343750 0.266667 -0.267731 71 8 11 5.059415
-0.329688 0.266667 -0.046459 24 3 4 5.059415
-0.315625 0.266667 0.078534 21 21 21 5.059415
-0.301562 0.266667 0.354213 40 5 6 5.059415
-0.287500 0.266667 0.447519 123 15 19 5.059415
-0.273438 0.266667 0.485586 175 21 26 5.059415
-0.259375 0.266667 0.500554 202 24 31 5.059415
-0.245312 0.266667 0.497876 211 25 32 5.059415
-0.231250 0.266667 0.484590 211 25 32 5.059415
-0.217187 0.266667 0.405349 20 20 20 5.059415
-0.203125 0.266667 0.365888 25 25 25 5.059415
-0.189063 0.266667 0.385895 17 17 17 5.059415
-0.175000 0.266667 0.430892 211 25 32 5.059415
-0.160938 0.266667 0.417467 211 25 32 5.059415
-0.146875 0.266667 0.404044 211 25 32 5.059415
-0.132813 0.266667 0.390620 210 25 32 5.059415
-0.118750 0.266667 0.377197 210 25 32 5.059415
-0.104687 0.266667 0.363773 210 25 32 5.059415
-0.090625 0.266667 0.350348 210 25 32 5.059415
-0.076563 0.266667 0.336924 209 25 32 5.059415
-0.062500 0.266667 0.319831 199 23 30 5.059415
-0.048437 0.266667 0.275612 156 18 24 5.059415
-0.346875 0.269444 -0.297874 24 3 4 5.059415
-0.332812 0.269444 -0.097166 24 3 4 5.059415
-0.318750 0.269444 0.073812 151 18 23 5.059415
-0.304688 0.269444 0.304314 24 3 4 5.059415
-0.290625 0.269444 0.432511 104 12 16 5.059415
-0.276563 0.269444 0.479607 164 19 25 5.059415
-0.262500 0.269444 0.500484 197 23 30 5.059415
-0.248437 0.269444 0.501330 210 25 32 5.059415
-0.234375 0.269444 0.489648 211 25 32 5.059415
-0.220313 0.269444 0.426112 17 17 17 5.059415
-0.206250 0.269444 0.368859 25 25 25 5.059415
-0.192188 0.269444 0.380204 20 20 20 5.059415
-0.178125 0.269444 0.435951 211 25 32 5.059415
-0.164063 0.269444 0.422526 211 25 32 5.059415
-0.150000 0.269444 0.409102 211 25 32 5.059415
-0.135937 0.269444 0.395680 210 25 32 5.059415
-0.121875 0.269444 0.382254 210 25 32 5.059415
-0.107813 0.269444 0.368831 210 25 32 5.059415
-0.093750 0.269444 0.355407 210 25 32 5.059415
-0.079687 0.269444 0.341983 209 25 32 5.059415
-0.065625 0.269444 0.326706 202 24 31 5.059415
-0.051562 0.269444 0.291432 170 20 26 5.059415
-0.037500 0.269444 0.160662 41 5 6 5.059415
-0.350000 0.272222 -0.348558 24 3 4 5.059415
-0.335938 0.272222 -0.147823 24 3 4 5.059415
-0.321875 0.272222 0.052835 24 3 4 5.059415
-0.307813 0.272222 0.082580 20 20 20 5.059415
-0.293750 0.272222 0.414636 84 10 13 5.059415
-0.279687 0.272222 0.472149 152 18 23 5.059415
-0.265625 0.272222 0.497823 190 22 29 5.059415
-0.251563 0.272222 0.504825 209 25 32 5.059415
-0.237500 0.272222 0.494705 211 25 32 5.059415
